40.138 -4.4561 14.37 213 59 174
27.897 -5.2342 13.309 177 57 169
32.82 -4.6978 14.372 192 59 174
24.682 -5.0966 13.932 168 58 172
26.14 -11.111 8.5497 172 41 144
13.988 -10.099 7.5396 136 44 138
24.838 -2.6949 13.524 168 64 170
28.28 -2.1284 14.182 178 66 173
32.584 -2.3453 13.706 191 65 171
23.983 -3.6166 14.049 166 62 172
13.826 -9.6951 7.2717 136 45 137
-2.6148 -12.877 9.3489 88 36 148
19.912 -12.9 8.5713 154 36 144
20.105 -13.046 9.9134 154 36 151
31.701 1.2346 14.049 188 75 172
31.715 -1.0327 14.038 189 69 172
24.084 -2.7533 14.1 166 64 173
25.427 -2.3844 14.106 170 65 173
26.192 -11.135 9.5084 172 41 149
26.16 -11.361 9.6972 172 40 150
23.028 -3.8076 14.126 163 61 173
22.516 -7.6761 7.5939 161 51 139
25.129 -9.5668 14.177 169 45 173
21.409 -7.4113 7.3565 158 51 137
26.598 -10.678 7.688 173 42 139
32.384 3.7268 8.2874 191 82 142
21.875 -7.2097 7.321 160 52 137
33.434 -11.945 11.307 194 39 158
24.196 -3.5325 14.161 166 62 173
25.022 -1.0857 14.258 169 69 174
23.883 -0.66367 13.973 166 70 172
23.684 -0.68184 14.121 165 70 173
22.762 -5.1332 13.964 162 58 172
24.119 0.011241 14.132 166 72 173
24.828 -2.228 14.089 168 66 173
23.956 -0.9496 14.222 166 69 173
15.914 -12.947 9.6205 142 36 149
19.711 -12.925 7.6477 153 36 139
17.531 -14.745 10.776 147 31 155
31.646 1.2142 14.059 188 75 173
24.053 -1.1745 14.063 166 68 173
24.492 1.3599 12.748 167 75 166
32.372 -12.097 12.658 190 38 165
20.83 -2.6796 13.633 157 64 170
22.706 -4.9136 14.074 162 58 173
23.05 -2.7685 13.972 163 64 172
35.611 -1.8585 7.7038 200 67 139
26.819 1.1766 7.838 174 75 140
33.015 4.0097 8.2224 192 83 142
23.554 -0.39824 13.547 165 71 170
27.139 1.7181 7.7516 175 76 139
40.566 1.4233 7.4742 215 76 138
24.073 0.31263 14.303 166 72 174
27.869 3.3375 13.843 177 81 171
23.756 0.8994 14.059 165 74 173
28.893 -1.894 7.5554 180 66 138
23.959 0.6384 14.03 166 73 172
21.509 -6.5846 7.6087 159 54 139
22.898 -2.6351 14.037 163 64 172
33.523 4.3731 9.7704 194 84 150
22.756 -10.717 14.289 162 42 174
30.302 -0.19562 7.4239 184 71 138
21.702 -6.5463 7.338 159 54 137
25.635 -0.12648 7.6022 171 71 139
27.993 -9.1846 13.35 178 46 169
24.48 -9.6392 14.056 167 45 173
21.667 -6.4275 7.5216 159 54 138
19.125 -12.945 10.477 152 36 154
24.457 -9.4927 7.728 167 46 139
25.939 0.63698 7.6382 172 73 139
17.181 -5.7948 7.4315 146 56 138
27.32 -10.854 7.6624 176 42 139
26.043 -1.5674 7.4715 172 67 138
19.466 -1.194 11.979 153 68 162
20.809 -1.7552 13.88 156 67 172
27.44 -0.54861 7.5022 176 70 138
24.555 1.1821 13.956 167 75 172
24.628 -9.2761 13.372 168 46 169
26.911 -4.9404 14.239 174 58 173
22.164 -3.6032 14.06 160 62 173
22.947 -2.6267 14.257 163 64 174
20.634 -1.618 14.012 156 67 172
29.1 -4.7416 14.527 181 59 175
17.367 -6.4287 7.7097 146 54 139
23.035 -4.9322 13.994 163 58 172
20.812 -6.2556 7.6031 156 54 139
17.022 -5.6265 7.631 145 56 139
20.916 -6.4271 7.6065 157 54 139
20.659 -6.3637 7.6885 156 54 139
38.698 -2.0633 10.464 209 66 154
32.832 -9.5172 14.329 192 46 174
22.79 -6.9731 7.359 162 53 137
22.105 -7.3786 7.4166 160 51 138
19.179 -1.1178 11.908 152 69 161
17.229 -5.7015 7.4707 146 56 138
27.445 4.0338 8.1428 176 83 141
21.241 0.59655 13.69 158 73 171
22.76 -0.63715 14.218 162 70 173
23.442 0.95528 13.887 164 74 172
27.291 -10.462 13.486 176 43 170
21.569 -5.037 13.838 159 58 171
20.374 -1.5597 14.072 155 67 173
21.82 -1.258 14.023 159 68 172
22.647 -1.099 14.104 162 69 173
24.871 -8.6977 14.013 168 48 172
24.961 -10.432 14.027 169 43 172
28.195 -2.6525 13.454 178 64 169
25.149 -5.842 14.211 169 56 173
31.721 -2.6412 7.5618 189 64 138
24.35 -2.1992 13.803 167 66 171
23.364 -1.1291 14.476 164 69 175
23.652 -3.1025 14.454 165 63 175
26.278 -2.5872 14.077 173 65 173
21.333 -4.0505 13.795 158 61 171
31.4 -0.16161 12.102 188 71 162
22.376 -2.3392 13.608 161 65 170
25.414 0.21738 7.8275 170 72 140
26.045 2.7516 8.108 172 79 141
20.81 -1.809 13.635 156 67 170
41.714 -0.044287 14.739 218 71 176
17.426 2.5576 13.503 147 79 170
17.676 2.0076 13.505 147 77 170
24.253 -1.6469 13.97 167 67 172
38.83 -4.4234 13.624 209 59 170
42.156 1.4241 11.983 219 76 162
31.508 -7.8475 11.345 188 50 158
17.079 -4.5111 7.6106 145 59 139
27.246 -5.0756 13.675 175 58 171
16.878 1.2229 13.491 145 75 170
43.444 -2.9398 9.8847 223 64 151
22.566 -0.89361 13.821 162 69 171
35.109 -2.0759 10.919 199 66 156
33.539 -4.8678 13.54 194 58 170
16.792 0.73845 13.727 145 74 171
26.019 -3.2756 13.99 172 63 172
30.002 -1.5369 13.7 184 67 171
26.73 1.3035 13.277 174 75 168
37.6 2.1314 8.2113 206 77 142
37.876 1.2866 13.397 207 75 169
17.11 1.1796 13.617 146 75 170
24.406 -2.2616 13.601 167 65 170
24.457 -5.4848 13.628 167 57 170
27.643 -4.6992 14.018 177 59 172
31.251 0.087843 14.17 187 72 173
24.655 0.075326 14.308 168 72 174
24.632 -5.3938 13.949 168 57 172
19.951 5.6847 9.8138 154 87 150
23.302 -0.36486 13.713 164 71 171
16.818 -4.5205 7.3393 145 59 137
27.226 0.7421 13.678 175 74 171
28.834 -5.9267 14.342 180 55 174
36.023 1.0637 13.646 201 75 170
26.963 -1.7017 13.525 175 67 170
12.607 4.0786 9.055 132 83 146
12.2 4.4334 9.0585 131 84 146
12.17 4.5161 9.7423 131 84 150
12.617 -1.0927 11.854 132 69 161
17.014 2.947 13.775 145 80 171
18.512 -1.0884 11.943 150 69 161
12.736 -1.0127 11.833 133 69 161
25.05 -1.2282 11.657 169 68 160
19.064 -1.3409 11.792 151 68 161
25.459 2.1476 13.078 170 77 167
12.732 3.5051 9.7614 133 81 150
18.342 -0.72414 11.923 149 70 161
28.069 1.6666 13.047 178 76 167
16.191 2.9811 13.564 143 80 170
18.37 4.2768 9.0539 149 83 146
25.842 0.73073 7.5198 171 74 138
17.154 -4.3883 7.6094 146 60 139
12.444 4.3091 8.9159 132 83 146
12.737 3.6504 8.6815 133 82 144
7.0172 1.3155 13.651 116 75 170
18.477 4.5246 8.7236 150 84 145
16.964 1.5353 13.679 145 76 171
6.6848 2.3524 13.838 115 78 171
19.275 4.0842 8.5574 152 83 144
16.72 1.5595 13.702 144 76 171
26.057 0.64942 7.6284 172 73 139
24.047 0.81213 13.929 166 74 172
27.811 3.2048 13.768 177 80 171
20.368 8.4956 7.7818 155 95 140
18.545 4.5766 8.9039 150 84 145
16.7 2.8071 13.991 144 79 172
17.56 3.0284 13.818 147 80 171
17.55 2.3468 13.637 147 78 170
17.866 -1.1265 7.8516 148 69 140
16.783 2.7063 14.128 145 79 173
16.628 1.7633 8.9928 144 76 146
12.462 4.433 9.3816 132 84 148
24.128 1.5159 8.5194 166 76 143
16.366 2.4017 7.3749 143 78 137
6.813 0.61709 13.783 115 73 171
19.303 7.3028 8.2972 152 92 142
18.584 0.071471 12.352 150 72 164
18.303 -1.0768 7.8525 149 69 140
16.466 -2.2221 7.4678 144 66 138
20.991 1.2178 7.9294 157 75 140
20.739 1.0774 8.0654 156 75 141
16.844 3.1425 12.807 145 80 166
28.8 3.4482 13.875 180 81 172
17.006 -2.4754 7.7453 145 65 139
28.079 2.423 16.207 178 78 184
16.445 3.1033 8.3032 144 80 142
18.241 3.6452 9.2526 149 82 147
19.567 8.6448 10.208 153 95 152
7.1689 -0.47991 14.081 116 70 173
2.6294 2.4873 13.659 103 78 170
20.665 1.2857 7.7826 156 75 140
3.034 2.7189 13.869 104 79 172
7.8242 -0.93126 7.6472 118 69 139
20.847 1.187 8.4072 157 75 143
5.6252 0.28248 14.57 112 72 175
18.742 5.4507 7.9721 150 87 141
6.9955 0.80072 13.668 116 74 170
18.014 -0.87563 8.3263 148 69 142
22.848 -1.2532 12.668 162 68 165
9.4799 2.813 8.4852 123 79 143
7.0201 2.2208 13.9 116 78 172
25.962 1.6989 14.689 172 76 176
4.767 -0.22013 12.29 109 71 163
2.7399 1.2513 12.799 103 75 166
20.575 8.554 8.7632 156 95 145
19.816 17.683 10.945 154 120 156
6.8748 1.6486 13.536 115 76 170
15.584 2.6977 9.1232 141 79 147
7.3929 0.28424 14.112 117 72 173
7.5688 -0.53712 13.91 118 70 172
8.0124 -1.0752 7.5365 119 69 138
17.59 3.2356 10.638 147 80 155
28.42 -17.702 7.5158 179 23 138
7.0558 1.284 13.623 116 75 170
8.7691 -0.63522 7.6309 121 70 139
6.6908 2.3096 13.831 115 78 171
9.3369 -1.1106 7.5404 123 69 138
6.9564 -0.72695 14.252 116 70 174
6.7464 0.6528 13.827 115 73 171
3.3027 2.5091 13.74 105 78 171
-2.7155 3.8601 19.556 87 82 201
2.6869 2.4115 13.854 103 78 171
7.4072 0.49521 14.056 117 73 173
6.939 0.84305 13.702 116 74 171
-0.041692 2.9945 8.0596 95 80 141
5.1693 3.103 12.206 110 80 163
7.6687 -0.26886 7.6123 118 71 139
5.5421 -0.88407 11.867 112 69 161
4.4481 1.0552 8.0657 108 75 141
7.2609 -0.77356 13.897 117 69 172
-1.2061 1.8752 16.413 92 77 185
29.058 -18.234 7.8935 181 22 140
11.485 -0.4129 11.55 129 70 159
6.7082 0.71089 13.854 115 74 171
1.4052 1.8697 13.591 99 77 170
7.2832 0.2743 13.998 117 72 172
16.869 3.2847 12.898 145 81 166
5.3431 0.71123 7.7235 111 74 139
19.349 -1.314 11.79 152 68 161
7.9041 3.1957 14.329 119 80 174
0.037498 2.9175 12.854 95 80 166
20.786 8.998 8.3836 156 96 143
17.938 3.3444 10.671 148 81 155
21.779 0.79255 7.5298 159 74 138
12.611 3.9949 8.692 132 83 144
20.844 1.2422 7.8594 157 75 140
14.764 1.4321 8.0339 139 76 141
3.5732 2.9354 12.83 106 80 166
19.248 3.487 10.353 152 81 153
7.6166 0.17381 7.3905 118 72 138
-1.6767 3.0657 8.1073 90 80 141
10.189 8.3648 8.7885 125 95 145
13.236 6.0765 9.9382 134 88 151
-1.3046 2.9026 9.677 91 80 150
11.209 3.1721 9.8178 128 80 150
-0.66739 2.9432 8.4675 93 80 143
-0.67962 3.0159 9.4863 93 80 149
-1.2799 2.8477 10.284 92 79 153
2.037 0.691 13.558 101 74 170
7.1372 1.0422 13.672 116 74 170
2.9639 0.75816 13.063 104 74 167
17.142 2.1081 9.8365 146 77 150
10.824 5.0485 8.3154 127 85 142
4.5647 2.9948 11.749 109 80 160
7.7812 2.2715 13.453 118 78 169
4.9605 -0.11318 11.979 110 71 162
16.486 1.4862 9.632 144 76 149
19.091 3.6287 10.397 151 82 153
22.513 13.079 10.961 161 107 156
7.2235 1.3884 13.76 117 75 171
15.497 3.4255 11.868 141 81 161
14.165 3.1229 9.4184 137 80 148
18.045 2.7287 9.7757 148 79 150
13.032 2.5085 9.7533 134 78 150
19.211 3.5858 10.263 152 81 153
21.253 9.5214 8.8541 158 98 145
6.5767 1.1136 13.785 115 75 171
20.957 8.5116 9.064 157 95 146
16.312 1.3685 8.258 143 75 142
1.8343 2.3124 13.242 101 78 168
17.485 1.3852 9.5143 147 75 149
14.751 11.564 10.309 139 103 153
15.572 3.3212 9.0579 141 81 146
19.953 5.1119 8.7896 154 86 145
14.477 1.5644 8.6845 138 76 144
14.608 1.5914 8.6917 138 76 144
14.227 4.4054 8.9788 137 84 146
13.22 1.9164 7.3663 134 77 137
11.231 4.3848 8.7508 128 84 145
13.336 1.6162 7.3083 134 76 137
18.011 2.5473 7.3084 148 79 137
9.4283 2.8605 8.4853 123 79 143
17.77 2.155 7.2902 148 78 137
16.615 1.4461 9.6196 144 76 149
-8.1091 32.835 8.7357 71 162 145
11.118 4.9071 8.7332 128 85 145
16.283 1.3692 9.5892 143 75 149
20.121 5.1032 7.4233 154 86 138
17.617 11.805 9.9069 147 104 151
19.875 6.3266 6.8883 154 89 135
16.842 2.8388 8.4246 145 79 143
16.698 2.5173 8.3227 144 79 142
18.067 1.7839 7.0306 148 76 136
18.887 4.7006 9.7635 151 84 150
17.761 1.7877 7.1678 148 77 136
17.972 1.5843 7.1581 148 76 136
19.678 3.8037 11.953 153 82 161
17.311 6.8863 8.3027 146 90 142
15.918 1.3963 8.9779 142 75 146
17.264 2.3821 8.9495 146 78 146
20.139 3.9399 9.9717 154 82 151
19.859 5.4683 7.4973 154 87 138
21.649 8.9469 9.2032 159 96 147
20.872 1.6712 7.9494 157 76 140
21.028 1.4741 7.9653 157 76 141
20.958 1.3673 7.7359 157 75 139
20.959 1.3453 8.3289 157 75 142
20.937 1.3363 8.1884 157 75 142
20.998 1.4206 8.0519 157 76 141
20.803 6.4837 7.9528 156 89 140
20.955 1.3388 7.8528 157 75 140
20.915 1.244 8.404 157 75 143
20.904 1.1921 7.9533 157 75 140
20.937 1.233 8.0405 157 75 141
20.845 1.2774 7.8554 157 75 140
20.882 1.5156 8.4085 157 76 143
31.936 3.5161 14.071 189 81 173
27.301 2.2519 13.812 176 78 171
21.115 0.98562 7.9363 157 74 140
30.839 3.2519 13.946 186 81 172
27.004 0.64033 12.373 175 73 164
22.017 0.91652 7.0645 160 74 136
28.775 2.0506 13.812 180 77 171
33.294 -1.7241 13.88 193 67 172
21.057 0.998 7.8669 157 74 140
41.462 3.5761 13.716 217 81 171
20.885 1.5089 7.9287 157 76 140
35.467 -1.9115 13.532 200 66 170
34.992 -0.53525 11.868 198 70 161
40.836 -1.5122 13.91 215 67 172
20.863 0.98063 8.4507 157 74 143
21.906 10.929 8.7574 160 102 145
29.185 -2.1796 13.937 181 66 172
29.764 -2.1645 13.87 183 66 172
20.057 5.3695 6.5609 154 86 133
35.417 -1.8033 14.226 199 67 173
19.981 5.1814 7.4332 154 86 138
20.21 5.5997 8.6562 155 87 144
20.963 1.2955 7.9753 157 75 141
20.856 1.3847 7.9119 157 75 140
26.772 1.4904 7.4121 174 76 138
25.849 0.12175 7.6259 171 72 139
20.977 1.4298 7.8517 157 76 140
20.025 4.9261 7.4306 154 85 138
44.717 -0.51126 11.709 227 70 160
20.982 9.7965 8.9003 157 98 145
43.578 -0.13833 9.2387 223 71 147
27.147 0.68569 7.7126 175 73 139
36.426 -1.1809 13.796 202 68 171
27.249 1.8513 13.828 175 77 171
26.607 1.3947 7.2559 174 75 137
26.462 1.1255 7.4021 173 75 138
19.786 7.308 6.55 153 92 133
35.273 -1.4727 13.467 199 68 169
36.245 -1.175 14.405 202 68 174
20.128 7.2716 6.5488 154 92 133
19.418 4.7095 6.3878 152 85 132
33.966 -1.3889 14.048 195 68 172
19.888 4.703 6.479 154 84 133
20.21 7.2436 6.4597 155 91 133
19.686 8.4081 6.4326 153 95 132
18.94 5.4304 6.4086 151 86 132
20.988 9.7965 8.9054 157 98 145
19.672 9.079 6.3787 153 96 132
21.013 9.8464 9.1285 157 99 147
20.54 11.74 8.3712 156 104 143
20.107 5.1738 6.5415 154 86 133
19.791 7.4042 6.5205 153 92 133
19.684 7.2735 6.4583 153 92 133
19.572 5.2164 6.3895 153 86 132
19.586 7.3855 6.6096 153 92 133
19.455 5.4568 6.3983 152 87 132
18.99 5.0999 6.3571 151 86 132
19.691 9.8543 6.4811 153 99 133
19.21 5.5742 6.3638 152 87 132
20.826 8.7515 9.0868 157 96 146
19.405 8.923 6.925 152 96 135
20.156 8.1702 6.4758 155 94 133
22.506 23.947 8.656 161 137 144
19.436 5.8076 6.2455 152 88 132
19.727 8.0465 6.3952 153 94 132
20.418 12.298 8.7401 155 105 145
20.53 12.74 8.3941 156 107 143
19.664 8.4651 6.5755 153 95 133
19.94 5.7475 6.4751 154 87 133
20.933 21.705 6.9539 157 131 135
19.474 13.273 7.5534 153 108 138
19.639 10.3 6.5315 153 100 133
22.064 23.477 9.4617 160 136 148
19.544 9.7528 6.3862 153 98 132
19.89 11.507 8.3466 154 103 143
18.283 4.948 8.8081 149 85 145
19.378 5.8121 6.431 152 88 132
18.9 8.6587 6.9823 151 95 135
19.611 9.1527 6.4781 153 97 133
20.496 8.7718 6.6091 156 96 133
19.92 4.6128 6.5586 154 84 133
20.902 7.7361 8.475 157 93 143
18.618 5.5863 6.3254 150 87 132
18.884 5.0418 6.3668 151 85 132
20.145 7.9699 7.776 155 93 140
19.954 4.8987 8.8836 154 85 145
19.795 8.52 6.6681 153 95 134
19.779 4.3855 8.9934 153 84 146
19.439 8.5214 6.6558 152 95 134
20.302 7.2037 6.5131 155 91 133
20.832 8.886 6.5706 157 96 133
18.805 5.0809 6.3933 151 86 132
19.809 7.4444 6.9927 154 92 135
20.388 8.1771 6.633 155 94 134
20.855 8.906 6.4401 157 96 133
19.813 4.9635 6.4859 154 85 133
20.286 6.6226 8.5689 155 90 144
20.162 7.3421 6.6543 155 92 134
21.787 11.531 9.6471 159 103 149
16.794 22.03 6.0712 145 132 131
17.18 22.744 11.727 146 134 160
18.231 5.9445 6.3024 149 88 132
19.73 8.1341 6.5928 153 94 133
16.733 23.924 12.669 144 137 165
20.242 8.7677 6.493 155 96 133
19.735 9.4148 7.7991 153 97 140
19.627 8.7487 8.0853 153 96 141
16.874 23.839 13.444 145 137 169
18.318 9.8781 5.9366 149 99 130
18.095 10.516 6.3798 148 100 132
19.437 8.1435 6.9616 152 94 135
19.628 22.166 5.9091 153 132 130
19.633 7.9721 8.076 153 93 141
17.32 19.001 14.786 146 124 176
17.578 11.264 12.501 147 102 164
20.379 19.58 15.011 155 125 178
18.548 11.267 6.4634 150 102 133
19.886 11.571 12.882 154 103 166
19.445 9.4431 6.6089 152 97 133
18.112 17.289 7.0908 149 119 136
19.308 11.686 13.116 152 104 168
19.747 11.563 13.021 153 103 167
17.365 11.174 12.259 146 102 163
16.81 10.809 12.417 145 101 164
20.751 21.023 17.829 156 129 192
20.105 14.53 13.373 154 111 169
20.365 15.743 14.805 155 115 176
17.71 12.047 12.152 147 105 163
11.894 13.773 12.397 130 109 164
20.358 19.982 14.186 155 126 173
17.039 8.141 7.8991 145 94 140
17.143 19.846 16.851 146 126 187
15.325 23.322 8.5254 140 135 143
10.63 19.779 10.946 127 126 156
18.746 10.886 6.5703 150 101 133
17.436 11.305 12.396 147 103 164
16.749 11.22 12.4 145 102 164
17.116 11.938 10.182 146 104 152
20.397 17.284 15.746 155 119 181
17.388 18.798 11.395 146 123 159
21.125 17.93 15.353 157 121 179
8.7969 13.383 14.497 121 108 175
10.264 12.054 10.877 125 105 156
9.6991 12.323 11.414 124 105 159
17.692 16.916 15.109 147 118 178
11.778 18.349 17.057 130 122 188
20.675 15.679 14.373 156 115 174
20.508 11.812 11.375 156 104 158
15.268 23.784 8.575 140 137 144
17.933 10.628 6.5037 148 101 133
20.113 11.793 11.747 154 104 160
21.217 17.617 14.967 158 120 177
16.402 18.854 16.007 144 123 183
17.659 17.851 15.107 147 121 178
21.51 18.768 15.2 159 123 179
16.434 18.047 15.211 144 121 179
17.524 17.75 14.885 147 120 177
18.926 26.486 12.115 151 144 162
23.811 7.1896 6.4916 165 91 133
23.537 10.517 6.6903 164 100 134
26.459 7.9777 10.655 173 93 155
29.166 8.6335 12.506 181 95 164
30.547 6.36 13.233 185 89 168
27.078 8.1664 10.547 175 94 154
30.029 5.6004 12.783 184 87 166
29.303 7.7461 12.117 181 93 162
26.649 7.9206 10.583 174 93 154
26.7 8.1828 10.623 174 94 154
29.215 5.4019 13.038 181 86 167
31.125 4.5045 14.896 187 84 177
27.449 5.8233 12.402 176 88 164
26.814 7.8107 10.698 174 93 155
26.59 8.1622 10.716 173 94 155
26.806 8.2034 11.149 174 94 157
27.382 5.5194 12.495 176 87 164
26.79 7.9173 11.2 174 93 158
26.377 5.7067 12.146 173 87 162
23.039 6.4123 6.4241 163 89 132
26.68 8.0511 10.468 174 94 154
22.662 6.5819 6.4298 162 90 132
35.351 2.6851 18.163 199 79 194
23.152 6.3643 6.427 163 89 132
23.478 5.9095 6.6657 164 88 134
27.529 10.907 6.1213 176 101 131
22.882 6.4131 6.4435 163 89 133
23.401 8.219 7.2007 164 94 137
29.946 6.4218 11.726 183 89 160
22.861 6.1873 6.4671 163 89 133
22.88 6.046 6.4531 163 88 133
23.226 5.5312 6.4635 164 87 133
28.649 5.7598 12.598 180 87 165
23.531 8.1517 6.6197 164 94 133
26.197 10.178 5.1282 172 99 126
26.311 10.033 5.1535 173 99 126
29.723 6.6953 12.652 183 90 165
26.773 7.9811 10.463 174 93 154
26.646 8.0644 10.356 174 94 153
26.741 8.186 10.854 174 94 156
27.67 8.86 2.7995 177 96 113
27.466 8.215 5.2027 176 94 126
2.8878 13.64 16.86 104 109 187
29.541 6.8493 12.654 182 90 165
29.857 8.1426 6.4055 183 94 132
29.931 7.8335 6.6831 183 93 134
27.369 5.7055 5.0117 176 87 125
29.976 6.2524 4.2302 183 89 121
27.32 5.3978 4.5056 176 86 122
27.848 5.1508 4.4543 177 86 122
28.729 5.5714 2.1527 180 87 110
27.529 7.794 4.4937 176 93 122
26.754 6.8987 4.6711 174 91 123
27.059 7.1471 4.201 175 91 121
27.306 6.2253 3.9549 176 89 119
27.192 7.0012 4.2022 175 91 121
26.729 7.5352 4.567 174 92 123
27.016 7.294 4.3524 175 92 122
27.299 5.173 3.0253 176 86 115
27.204 7.6121 4.9393 175 92 125
27.483 7.0714 4.227 176 91 121
19.506 9.5014 10.663 153 98 155
26.87 7.7525 4.5356 174 93 123
27.658 5.6643 5.0391 177 87 125
28.091 10.127 5.2801 178 99 126
31.012 5.7282 3.8679 186 87 119
26.315 8.6203 5.6461 173 95 128
27.348 6.1873 3.4717 176 89 117
27.357 8.7369 4.553 176 96 123
27.592 8.3158 4.5222 176 94 122
28.968 10.989 3.807 180 102 119
29.166 10.826 4.1051 181 101 120
30.371 5.0839 3.8306 185 86 119
28.334 5.7165 4.2971 179 87 121
27.379 10.492 4.5502 176 100 123
27.021 10.421 4.6959 175 100 123
27.924 8.3438 3.7884 177 94 119
29.328 10.692 4.0861 182 101 120
27.541 7.9949 4.4429 176 94 122
27.503 7.9745 5.0132 176 93 125
27.498 8.1829 4.9658 176 94 125
29.845 12.917 0.9929 183 107 104
26.982 8.8155 4.7661 175 96 124
27.479 7.8468 5.0227 176 93 125
27.577 6.6322 2.9876 176 90 114
27.701 7.7642 4.4132 177 93 122
27.428 8.0312 4.7197 176 94 124
26.9 8.9922 4.7813 174 96 124
27.321 7.7822 5.0351 176 93 125
27.953 7.8326 1.7887 177 93 108
27.369 8.3626 5.1841 176 95 126
32.908 16.326 -4.0257 192 116 78
26.674 8.8882 4.5194 174 96 122
26.882 8.839 4.8101 174 96 124
29.73 8.112 6.3568 183 94 132
28.935 3.7073 0.4759 180 82 101
26.95 8.5695 5.2438 175 95 126
27.41 8.6247 4.6349 176 95 123
27.007 8.3578 5.3329 175 95 127
29.709 5.659 4.2796 183 87 121
27.531 8.0672 4.6053 176 94 123
27.731 5.7264 4.3199 177 87 121
29.627 8.3924 4.3479 182 95 122
27.77 7.7237 4.5187 177 93 122
28.229 5.5497 6.1939 178 87 131
29.72 6.3972 4.5186 183 89 122
27.562 7.9129 4.5346 176 93 123
27.463 8.0024 4.8952 176 94 124
27.404 8.1374 4.8667 176 94 124
27.453 7.5696 4.3935 176 92 122
27.49 5.7089 4.1501 176 87 121
29.785 6.0017 4.5103 183 88 122
29.714 7.7952 4.5016 183 93 122
27.628 7.7986 4.3888 177 93 122
29.875 8.0328 6.4925 183 94 133
29.82 5.6902 4.4046 183 87 122
27.15 7.6617 3.6632 175 93 118
27.552 8.2405 4.2948 176 94 121
27.291 7.8049 4.1705 176 93 121
29.612 5.7464 4.5182 182 87 122
29.712 4.8962 4.1348 183 85 120
27.782 5.7056 4.3542 177 87 122
24.559 5.4848 2.5546 167 87 112
23.8 5.5554 2.3921 165 87 111
22.402 5.483 3.9439 161 87 119
26.718 6.4615 3.8449 174 89 119
24.842 6.9369 3.2471 168 91 116
20.718 5.5276 4.1932 156 87 121
16.83 5.0176 4.1528 145 85 121
19.64 5.2713 4.2089 153 86 121
20.611 5.5583 4.0497 156 87 120
16.864 4.909 4.3353 145 85 121
22.951 5.666 4.0908 163 87 120
22.938 5.3928 3.7869 163 86 119
7.2793 4.8327 -0.47699 117 85 96
15.339 5.1058 3.9795 140 86 120
10.232 5.1945 3.9308 125 86 119
22.928 7.027 1.962 163 91 109
21.735 7.5162 4.9906 159 92 125
12.126 4.8784 -0.94219 131 85 94
10.001 4.9809 -0.3513 125 85 97
10.268 9.7597 -0.13278 125 98 98
7.8752 9.7172 -0.24848 118 98 97
17.015 5.2294 -0.43272 145 86 96
23.113 7.6139 2.5361 163 92 112
22.002 4.7105 0.40751 160 85 101
19.552 7.2988 9.3344 153 92 148
21.697 8.0335 5.1088 159 94 126
20.733 5.3921 4.4789 156 86 122
16.702 5.4668 4.6568 144 87 123
23.423 8.0566 2.9364 164 94 114
13.769 10.816 2.0547 136 101 110
21.49 9.9425 0.39604 158 99 101
23.351 7.9074 2.8728 164 93 114
13.355 5.033 2.2857 135 85 111
17.113 10.248 -0.31694 146 100 97
7.6705 10.957 -9.2641 118 102 50
14.554 10.715 4.1034 138 101 120
14.817 10.835 4.3061 139 101 121
9.8244 7.6381 -0.55388 124 93 96
19.273 8.9917 4.8224 152 96 124
20.448 10.227 9.3461 155 100 148
17.279 10.191 -0.21028 146 100 98
13.766 5.1338 -0.23929 136 86 97
7.8496 4.8695 -0.31634 118 85 97
18.698 10.572 9.7069 150 101 150
16.018 10.289 4.2709 142 100 121
14.865 7.5261 -1.6899 139 92 90
20.857 8.6588 4.7673 157 95 124
21.028 5.6159 4.1179 157 87 120
18.734 7.1959 10.382 150 91 153
20.204 9.404 9.5023 155 97 149
17.358 5.3948 3.9989 146 86 120
15.315 5.1085 3.7262 140 86 118
23.021 7.3695 2.0555 163 92 110
17.208 7.9255 11.038 146 93 157
23.097 7.5565 2.0174 163 92 109
23.023 6.9085 2.029 163 91 109
22.917 9.1773 7.165 163 97 136
20.893 5.3831 9.2204 157 86 147
21.493 9.8754 -1.1422 158 99 93
2.8765 6.9908 -2.1606 104 91 87
9.5141 4.8988 -0.54205 123 85 96
14.632 7.5426 -1.8302 138 92 89
21.976 10.464 8.6599 160 100 144
14.818 4.5382 4.2257 139 84 121
11.129 7.33 -2.1208 128 92 88
14.184 10.713 1.9298 137 101 109
22.757 5.6009 4.2988 162 87 121
20.795 5.4263 3.9097 156 86 119
8.7487 6.7333 -0.79752 121 90 95
15.315 5.4081 4.0895 140 86 120
22.987 5.6506 4.0935 163 87 120
22.638 7.3237 1.9849 162 92 109
23.433 5.4665 4.3096 164 87 121
9.2009 4.6224 -0.44598 122 84 96
12.934 10.1 -0.42508 133 99 96
21.813 8.391 4.9884 159 95 125
17.04 11.796 11.534 145 104 159
15.258 5.0585 4.2529 140 85 121
20.182 5.3995 4.3052 155 86 121
20.326 8.0315 9.7466 155 94 150
20.578 10.147 8.8367 156 99 145
23.242 7.9284 2.6901 164 93 113
23.189 8.1526 2.6547 163 94 113
19.774 5.841 9.8702 153 88 151
22.07 10.178 2.0643 160 99 110
22.764 7.3554 1.9855 162 92 109
10.183 6.7653 -0.33836 125 90 97
9.055 2.3463 -0.933 122 78 94
20.146 7.0733 9.4543 155 91 148
14.493 10.495 0.29618 138 100 100
23.044 7.5689 2.4483 163 92 112
16.1 6.9688 4.3441 143 91 122
23.544 8.0474 2.7867 165 94 113
21.645 10.184 2.7703 159 100 113
21.366 10.27 2.5468 158 100 112
17.377 9.9053 -0.054214 146 99 98
13.944 10.727 2.3456 136 101 111
20.438 10.073 2.5584 155 99 112
23.582 8.937 5.6506 165 96 128
24.008 8.2714 6.0612 166 94 131
21.252 7.5714 4.9306 158 92 125
20.714 10.404 4.1035 156 100 120
16.899 5.1906 4.0308 145 86 120
17.109 10.181 4.0171 146 99 120
14.291 7.2367 -0.63782 137 91 95
16.476 10.241 2.2471 144 100 111
8.8709 7.6584 -0.87108 121 93 94
8.6068 7.0198 -1.0451 121 91 93
7.551 6.7244 -1.248 117 90 92
23.457 8.3132 2.5296 164 94 112
20.203 8.0866 9.686 155 94 150
22.974 7.5897 1.905 163 92 109
6.6688 6.6684 2.694 115 90 113
23.043 7.0218 2.0564 163 91 110
22.975 7.7577 2.6808 163 93 113
16.997 5.1401 3.6686 145 86 118
22.003 10.242 2.2335 160 100 110
-2.0025 7.4891 1.839 89 92 108
21.978 10.275 2.4237 160 100 111
21.189 9.9389 2.7784 158 99 113
22.547 5.7 1.8858 162 87 109
21.706 5.6689 1.8691 159 87 109
23.353 8.0304 2.7212 164 94 113
11.863 6.7551 10.98 130 90 156
13.134 5.0021 4.0773 134 85 120
23.465 8.0685 2.711 164 94 113
23.117 8.2894 2.5196 163 94 112
15.714 8.8905 3.4654 141 96 117
23.628 7.4139 6.5795 165 92 133
10.296 9.0816 0.46414 126 96 101
20.014 9.2551 9.6077 154 97 149
13.079 10.907 1.3555 134 101 106
23.307 6.0573 6.7626 164 88 134
22.875 5.4588 3.6993 163 87 118
22.975 7.1361 1.9912 163 91 109
14.432 9.4989 0.27012 138 98 100
13.913 11.011 0.059051 136 102 99
18.53 8.9663 9.836 150 96 150
22.495 6.3133 7.5668 161 89 138
20.382 10.266 4.2096 155 100 121
21.456 5.33 4.3331 158 86 121
22.99 6.263 7.0365 163 89 136
21.987 10.284 2.5649 160 100 112
22.758 6.3589 1.9307 162 89 109
23.428 7.4906 6.64 164 92 134
21.34 9.9362 0.5147 158 99 101
23.814 6.0553 6.2181 165 88 131
18.704 8.6195 -0.85252 150 95 94
16.216 9.7505 3.8349 143 98 119
12.788 10.094 4.0588 133 99 120
7.9218 7.0134 -1.2539 119 91 92
23.589 7.7213 5.3074 165 93 127
23.754 5.6265 2.2932 165 87 111
20.91 5.3903 4.0675 157 86 120
21.847 8.3746 4.9885 160 95 125
14.277 10.875 2.4078 137 101 111
23.449 6.3313 7.0081 164 89 136
15.33 10.471 1.8986 140 100 109
21.52 5.096 8.8597 159 86 145
23.357 8.3697 2.8472 164 95 114
13.268 4.9712 3.0404 134 85 115
11.172 4.8969 2.0829 128 85 110
20.994 8.0499 5.0562 157 94 125
10.773 5.2758 3.9806 127 86 120
22.747 6.5843 1.9231 162 90 109
20.87 10.072 2.5873 157 99 112
17.397 10.153 3.9261 146 99 119
22.662 9.3314 1.9793 162 97 109
10.725 9.7001 2.1519 127 98 110
22.721 7.3699 1.9206 162 92 109
22.768 6.9983 1.967 162 91 109
14.933 10.85 3.3738 139 101 116
22.707 10.374 4.085 162 100 120
7.3111 4.8548 4.2341 117 85 121
22.068 10.176 2.0548 160 99 110
22.719 10.465 3.975 162 100 120
20.215 10.511 -0.432 155 100 96
21.997 10.272 2.5799 160 100 112
16.707 5.0549 2.1101 144 85 110
20.2 10.133 2.2215 155 99 110
22.639 9.629 1.9585 162 98 109
8.416 4.7999 4.0182 120 85 120
22.826 10.518 4.1382 162 100 120
18.247 5.3852 3.3519 149 86 116
22.79 6.8529 1.978 162 90 109
22.712 10.371 4.0814 162 100 120
8.0632 7.1996 4.6038 119 91 123
9.9862 6.9813 4.4513 125 91 122
-0.55489 4.2148 4.1663 94 83 121
22.882 5.5619 3.9185 163 87 119
22.725 6.2266 1.8896 162 89 109
3.3877 6.6245 -1.9217 105 90 89
9.2272 5.3118 -0.00017368 122 86 99
17.095 5.4142 -0.36604 146 86 97
21.135 5.4196 3.9798 157 86 120
15.887 5.1768 2.4301 142 86 111
10.787 11.773 2.9195 127 104 114
9.3409 9.5333 2.641 123 98 113
0.98191 6.2983 4.2754 98 89 121
20.448 8.1766 4.2034 155 94 121
7.6363 7.0846 2.3586 118 91 111
22.477 7.3299 1.831 161 92 108
10.368 9.5201 3.889 126 98 119
22.756 7.65 1.9974 162 93 109
11.546 4.9418 4.4104 129 85 122
12.613 7.2327 5.2649 132 91 126
5.6091 7.0604 3.3843 112 91 116
13.28 5.2495 4.0922 134 86 120
17.261 5.2303 3.9116 146 86 119
12.96 10.335 -0.36755 133 100 97
12.913 10.362 -0.47873 133 100 96
20.014 7.3878 1.0531 154 92 104
23.152 5.5281 3.9678 163 87 120
20.185 10.048 2.1298 155 99 110
19.317 7.7978 4.8783 152 93 124
9.2176 9.7198 3.8913 122 98 119
2.3891 7.4995 -2.4182 102 92 86
20.616 10.181 2.5897 156 99 112
16.817 5.1623 2.0162 145 86 109
19.836 7.2762 0.86787 154 92 103
16.985 5.2945 4.2217 145 86 121
14.03 5.1255 4.4363 137 86 122
14.269 10.586 0.26084 137 101 100
8.3369 6.8071 5.0942 120 90 125
21.454 8.1263 5.0594 158 94 125
22.807 5.8935 1.9558 162 88 109
22.794 5.9885 1.9514 162 88 109
13.83 5.0875 3.7078 136 86 118
12.53 7.2844 5.5187 132 92 128
23.012 5.5746 4.0663 163 87 120
9.5232 5.1801 -0.46175 123 86 96
18.97 5.1207 4.8831 151 86 124
12.764 6.8299 5.7539 133 90 129
20.819 7.8701 5.2617 156 93 126
18.646 6.6947 5.379 150 90 127
13.761 5.0789 3.6999 136 86 118
13.713 11.068 2.5852 136 102 112
7.907 6.7613 2.779 119 90 113
13.499 9.7058 4.0281 135 98 120
19.284 7.4807 0.41042 152 92 101
17.137 5.3824 4.0576 146 86 120
13.661 6.8058 5.8716 135 90 130
12.689 9.8985 -0.45305 133 99 96
10.801 5.1097 -0.087269 127 86 98
13.592 5.1274 -0.3322 135 86 97
16.754 5.1703 -0.61974 145 86 95
7.4224 4.8569 -0.43879 117 85 96
3.2761 7.0386 2.2105 105 91 110
16.809 5.2964 4.4114 145 86 122
8.6077 7.3618 -3.3824 121 92 81
13.67 11.069 4.1992 135 102 121
17.584 6.995 5.6991 147 91 129
22.827 7.6973 2.1019 162 93 110
9.7231 9.893 4.4198 124 99 122
7.7863 9.972 4.5488 118 99 123
17.715 8.0805 5.0976 147 94 125
14.712 6.4823 6.3166 139 89 132
14.109 10.897 4.8289 137 101 124
20.225 10.138 2.0672 155 99 110
14.712 10.886 4.5991 139 101 123
16.605 10.423 -0.5638 144 100 96
8.9814 6.5873 5.298 122 90 127
13.769 11.028 -0.30126 136 102 97
17.731 7.6297 5.2602 147 93 126
13.252 9.8728 4.2263 134 99 121
17.263 7.889 5.6615 146 93 128
12.33 6.4858 5.5702 132 89 128
8.7778 5.1902 4.4877 121 86 122
20.747 5.4852 3.9154 156 87 119
13.048 10.111 4.4749 134 99 122
17.085 7.9576 5.5634 146 93 128
16.884 10.187 4.2214 145 100 121
17.037 7.2074 5.6928 145 91 129
16.442 10.418 4.574 144 100 123
17.093 5.1854 2.7976 146 86 113
14.634 7.4209 5.7123 138 92 129
9.7015 9.8826 4.0971 124 99 120
10.038 9.8418 4.4403 125 99 122
12.666 9.9685 4.4652 133 99 122
17.412 6.656 5.7827 146 90 129
8.3689 9.866 4.5475 120 99 123
7.4666 9.5651 4.5416 117 98 123
13.674 7.1501 5.8313 135 91 129
8.8404 10.357 4.5094 121 100 122
16.817 10.195 4.0023 145 100 120
18.648 7.4759 5.7177 150 92 129
17.869 7.8964 5.2037 148 93 126
17.971 7.7286 5.1962 148 93 126
16.7 7.5478 5.7722 144 92 129
13.877 7.5129 5.2521 136 92 126
13.47 10.237 4.3108 135 100 121
7.6738 7.0095 4.4782 118 91 122
14.529 10.832 4.9922 138 101 125
9.2668 4.8591 4.4231 123 85 122
12.485 7.2516 5.5178 132 91 128
13.98 10.956 4.8849 136 102 124
17.257 8.1636 5.8064 146 94 129
16.97 7.7038 5.7273 145 93 129
17.996 7.8689 5.7234 148 93 129
15.35 10.582 2.0364 140 101 109
12.362 10.053 5.069 132 99 125
13.873 10.997 3.233 136 102 116
16.372 6.6046 5.6785 143 90 129
13.933 8.8218 1.0328 136 96 104
34.114 7.1017 1.0261 196 91 104
18.801 7.3973 5.7961 151 92 129
17.074 7.7904 5.7945 145 93 129
17.253 8.2145 5.7153 146 94 129
18.426 7.6443 5.753 149 93 129
17.061 7.1299 5.6878 145 91 129
15.708 7.1525 5.6522 141 91 128
10.584 8.3044 5.342 126 94 127
14.508 6.4891 5.7559 138 89 129
15.859 8.814 5.7713 142 96 129
17.355 10.04 -0.078613 146 99 98
17.935 7.9975 5.1632 148 94 126
13.282 7.9698 5.1022 134 93 126
10.771 8.117 5.7846 127 94 129
12.918 7.7709 5.3249 133 93 127
18.393 8.0044 5.5806 149 94 128
10.573 9.6589 -3.2326 126 98 82
14.225 10.649 4.9459 137 101 125
12.989 4.8943 3.0321 133 85 115
13.493 4.9432 4.2321 135 85 121
13.678 5.2351 4.2115 135 86 121
18.248 7.3126 5.783 149 92 129
16.901 10.061 4.253 145 99 121
16.274 10.373 4.7926 143 100 124
17.243 8.8572 5.7822 146 96 129
6.3614 4.4169 -0.94578 114 84 94
9.141 9.8884 2.6157 122 99 112
13.662 6.3857 5.779 135 89 129
13.12 5.895 5.8309 134 88 129
18.151 7.4803 5.7835 149 92 129
13.577 5.2337 4.4539 135 86 122
15.806 9.9434 0.73117 142 99 103
16.764 7.3238 5.7746 145 92 129
14.121 10.873 1.7245 137 101 108
13.803 11.029 2.7539 136 102 113
12.977 6.4248 5.7681 133 89 129
12.874 9.1658 5.8918 133 97 130
13.346 4.9695 2.2394 135 85 110
17.903 7.4479 5.1792 148 92 126
16.63 7.3186 5.5 144 92 128
20.026 10.175 2.1205 154 99 110
17.546 7.7524 -0.89875 147 93 94
15.527 9.3449 3.8033 141 97 119
15.261 10.178 2.4472 140 99 112
21.438 10.43 3.4706 158 100 117
13.6 10.783 5.0615 135 101 125
21.965 10.415 2.559 160 100 112
21.555 10.083 2.6635 159 99 113
21.825 10.368 3.6082 159 100 118
21.731 10.304 2.7407 159 100 113
21.834 10.705 3.1801 159 101 115
21.596 10.339 2.6895 159 100 113
30.459 7.9862 1.6593 185 93 107
31.257 7.7872 1.6816 187 93 108
30.513 8.535 2.3495 185 95 111
26.978 7.9784 4.2754 175 93 121
27.276 7.8943 4.1428 175 93 120
23.995 8.5384 6.1193 166 95 131
25.957 7.8679 3.6836 172 93 118
27.538 7.9547 4.2351 176 93 121
27.395 7.9965 4.0447 176 94 120
27.175 8.5214 4.3431 175 95 122
26.044 7.7242 3.7867 172 93 119
24.743 7.6836 2.8012 168 93 113
25.365 7.6617 3.4238 170 93 117
25.929 7.7796 3.596 172 93 118
27.335 8.296 4.85 176 94 124
29.956 8.1918 2.3506 183 94 111
29.385 8.8247 2.2759 182 96 111
29.567 8.2513 2.3982 182 94 111
29.415 8.2307 2.0695 182 94 110
29.88 8.7791 1.9827 183 96 109
30.005 8.5602 2.4175 184 95 111
27.706 7.5545 -1.0291 177 92 93
14.993 13.221 -6.3013 139 108 66
28.129 7.4161 -1.5413 178 92 91
20.337 8.864 5.0187 155 96 125
27.18 8.3203 3.6162 175 94 118
29.755 8.6962 2.4305 183 95 111
28.072 7.9018 -0.90644 178 93 94
23.464 7.8516 1.6327 164 93 107
22.772 6.2605 0.96499 162 89 104
22.475 6.4704 0.77259 161 89 103
22.109 7.1134 0.95366 160 91 104
24.099 5.8054 0.60084 166 88 102
23.434 6.2533 0.67268 164 89 102
23.281 6.2056 0.59441 164 89 102
22.963 7.5437 0.95872 163 92 104
19.991 7.1324 0.56425 154 91 102
10.563 5.6726 -0.79948 126 87 95
9.5175 5.4013 -1.2546 123 86 92
20.614 5.6307 -1.3875 156 87 91
23.77 5.9232 0.66895 165 88 102
15.503 6.1562 -0.070904 141 88 98
23.223 8.1394 0.66398 164 94 102
21.149 5.6621 -0.38047 157 87 97
14.547 5.1901 -1.3509 138 86 92
19.202 5.1989 -0.93714 152 86 94
15.111 4.7246 -1.6288 140 85 90
22.326 6.1239 -0.4 161 88 97
23.473 8.5397 0.26507 164 95 100
23.015 8.2136 0.80134 163 94 103
22.213 7.2764 0.68336 161 92 102
18.847 7.6937 -2.1269 151 93 88
23.767 8.3255 0.25889 165 94 100
23.184 8.3216 -0.59988 163 94 96
23.865 5.6638 0.71522 165 87 102
23.468 6.166 0.67203 164 88 102
13.473 7.461 -5.2742 135 92 71
21.877 7.0172 0.68448 160 91 102
22.745 7.1932 0.77523 162 91 103
23.136 8.2114 0.7404 163 94 103
17.545 7.3891 -2.741 147 92 84
23.991 8.8893 0.82586 166 96 103
23.817 5.908 0.61286 165 88 102
22.448 5.8978 0.6607 161 88 102
22.593 6.7781 0.98335 162 90 104
16.859 7.1424 -3.7292 145 91 79
21.415 7.3782 0.51995 158 92 101
23.114 6.8925 0.95503 163 90 104
10.27 6.2796 -4.4632 125 89 75
22.838 6.1926 0.97463 162 89 104
11.13 6.6817 -4.7782 128 90 74
24.85 8.6778 1.2933 168 95 106
23.254 8.3474 0.56098 164 94 102
10.652 6.7139 -3.1539 127 90 82
23.225 6.8249 0.95539 164 90 104
9.4794 5.5169 -1.7111 123 87 90
12.656 9.2019 -11.483 132 97 38
23.349 8.5675 2.1299 164 95 110
23.621 8.5675 1.7523 165 95 108
13.522 5.4651 -1.0461 135 87 93
22.927 8.484 1.2169 163 95 105
5.432 5.7505 -5.3573 111 87 71
14.606 6.2683 -1.2816 138 89 92
20.755 5.7347 0.37977 156 87 101
23.189 6.1305 0.78582 163 88 103
15.065 6.0716 -2.7553 140 88 84
14.205 6.6225 -2.644 137 90 85
2.695 3.5417 -1.0496 103 81 93
9.9675 4.5538 -4.4897 125 84 75
15.641 6.3254 0.76898 141 89 103
23.172 8.1398 0.75587 163 94 103
11.005 5.1527 -1.1587 128 86 93
23.747 5.9336 0.73551 165 88 103
7.2517 5.5755 -3.7172 117 87 79
20.853 5.6783 0.377 157 87 101
20.675 7.5511 -1.7798 156 92 89
11.514 5.8336 -2.5642 129 88 85
14.039 6.769 -3.8059 137 90 79
24.061 5.7008 0.5311 166 87 102
1.3622 5.8465 -7.3683 99 88 60
19.751 7.8569 -0.83079 153 93 94
23.252 8.18 0.79591 164 94 103
21.684 7.2215 -4.2347 159 91 76
21.451 5.5842 0.57184 158 87 102
23.105 7.1713 0.88794 163 91 103
10.284 5.2358 -0.6597 126 86 95
23.87 8.5756 0.98673 165 95 104
20.734 5.7219 0.37347 156 87 101
23.389 6.9798 0.87625 164 91 103
23.322 6.1021 0.68024 164 88 102
23.516 8.5502 -1.4775 164 95 91
11.105 5.0863 -1.7569 128 86 90
23.44 5.7288 0.79888 164 87 103
8.2093 4.1749 -4.8642 119 83 73
8.2324 3.8164 -5.0185 119 82 72
16.918 6.1864 -2.1532 145 89 87
16.548 6.1135 -2.3678 144 88 86
15.842 6.1471 -0.17888 142 88 98
23.24 6.3076 0.67559 164 89 102
15.531 6.5432 -2.2769 141 90 87
18.004 7.5585 -1.2659 148 92 92
10.792 7.077 -5.4478 127 91 70
13.629 5.1148 -1.2566 135 86 92
23.018 7.3204 0.8915 163 92 103
21.192 6.029 0.64372 158 88 102
21.54 7.0535 -5.2248 159 91 71
19.569 5.382 -0.99513 153 86 94
11.596 5.835 -2.1478 129 88 87
22.897 6.7561 0.90639 163 90 103
23.399 7.7605 1.7269 164 93 108
19.455 7.6104 -2.4529 152 92 86
16.764 5.3863 -1.1953 145 86 92
10.664 3.566 -2.5821 127 81 85
17.835 5.3489 -1.3714 148 86 92
20.918 6.3003 0.74033 157 89 103
22.869 6.5546 0.97381 163 90 104
17.371 5.3464 -1.2676 146 86 92
20.773 6.756 0.79799 156 90 103
23.114 5.6102 0.54117 163 87 102
19.74 5.3463 -1.0733 153 86 93
19.427 5.3337 -1.2371 152 86 92
22.273 8.3554 -0.81537 161 94 94
10.348 8.0173 -3.9161 126 94 78
14.432 5.2295 -1.3402 138 86 92
8.6656 7.776 -2.4402 121 93 86
20.896 7.0317 0.75009 157 91 103
11.476 7.7637 -1.0762 129 93 93
10.131 7.7562 -1.5985 125 93 90
21.15 7.582 0.83496 157 92 103
21.149 6.7007 0.85267 157 90 103
21.068 6.9963 0.75143 157 91 103
21.157 6.0606 0.89197 157 88 103
21.072 6.4619 0.87332 157 89 103
11.609 7.9139 -2.7557 129 93 84
21.137 6.5362 0.79723 157 90 103
20.436 6.4434 0.92207 155 89 104
21.109 6.4475 0.80262 157 89 103
21.131 6.3676 0.79213 157 89 103
9.5048 8.2621 -4.2369 123 94 76
21.059 6.53 1.0039 157 89 104
21.018 7.4253 0.87653 157 92 103
21.05 6.5806 0.87558 157 90 103
11.854 8.4229 -1.035 130 95 93
21.133 6.81 0.92049 157 90 104
21.114 6.9057 0.92136 157 91 104
21.052 7.5464 0.92252 157 92 104
20.977 5.8256 0.93782 157 88 104
21.11 6.0409 0.83939 157 88 103
21.179 6.2243 0.85859 158 89 103
21.015 6.473 0.94836 157 89 104
20.993 6.59 0.94987 157 90 104
21.149 6.4126 0.84862 157 89 103
21.085 6.8491 0.98543 157 90 104
11.168 8.0557 1.179 128 94 105
10.889 8.7859 -1.313 127 96 92
21.107 6.9175 0.74041 157 91 103
21.081 6.5743 1.044 157 90 104
21.122 6.6144 0.79409 157 90 103
11.552 8.2797 -0.13271 129 94 98
15.424 6.9943 -1.8506 141 91 89
20.992 6.5167 0.72686 157 89 103
11.23 8.3274 1.1819 128 94 105
20.397 5.6091 0.11035 155 87 99
14.934 8.9888 0.53762 139 96 102
14.615 8.5772 -0.93294 138 95 94
16.655 5.5002 -1.0282 144 87 93
10.809 8.4077 1.2378 127 95 105
13.572 8.9835 0.70127 135 96 102
11.454 7.9167 -2.8671 129 93 84
21.149 6.2101 0.73206 157 89 103
20.931 8.1805 0.74917 157 94 103
9.2088 7.6017 1.0346 122 92 104
7.8232 11.361 1.3532 118 103 106
17.345 8.7878 -0.81016 146 96 94
9.278 7.3501 -3.1593 123 92 82
13.354 9.2578 1.1218 135 97 105
13.535 8.8333 1.1322 135 96 105
14.598 9.0151 1.2355 138 96 105
13.835 9.3106 0.42948 136 97 101
20.613 8.2977 -3.7719 156 94 79
9.6133 9.1313 1.7188 124 97 108
17.118 8.9321 0.48085 146 96 101
16.519 9.0028 0.4623 144 96 101
10.061 5.2203 0.035321 125 86 99
14.207 9.2005 0.73976 137 97 103
17.076 5.5173 0.89619 145 87 103
13.78 9.3667 -3.7074 136 97 79
17.008 9.0371 0.54159 145 96 102
14.123 9.172 0.81402 137 97 103
14.512 9.037 0.59971 138 96 102
17.407 5.496 0.90292 146 87 103
16.589 8.9265 1.1269 144 96 105
0.74833 6.8881 -8.8917 97 90 52
10.881 6.9398 -3.4561 127 91 81
13.515 8.6844 1.1878 135 95 105
9.0808 8.1097 0.50772 122 94 101
17.168 8.7701 0.48651 146 96 101
10.336 5.4918 -3.3237 126 87 81
17.447 5.4941 0.53707 147 87 102
15.483 7.517 1.8478 141 92 108
17.256 9.1394 -0.19207 146 97 98
14.537 9.0457 1.427 138 96 106
9.7457 6.4408 -3.8143 124 89 79
14.203 8.8539 -0.18154 137 96 98
17.064 9.2108 -0.11471 145 97 98
13.081 9.5096 1.2608 134 98 105
11.003 5.2705 1.2108 128 86 105
14.719 8.85 0.52474 139 96 101
11.568 5.181 1.4179 129 86 106
14.884 9.0613 1.4189 139 96 106
15.984 8.8922 1.1137 142 96 105
10.715 6.5994 1.1139 127 90 105
14.547 8.9144 1.1067 138 96 105
10.641 5.1894 0.34101 127 86 101
10.384 7.8064 -3.7178 126 93 79
16.747 8.9753 -0.19894 145 96 98
10.438 5.2914 0.39002 126 86 101
11.197 8.1161 1.2987 128 94 106
14.265 9.0778 0.77177 137 96 103
12.043 9.1125 1.0521 131 97 104
18.349 9.0287 1.1943 149 96 105
17.778 8.92 -0.71824 148 96 95
7.7591 7.7386 0.91407 118 93 104
13.344 9.4584 1.2014 135 98 105
9.3366 7.6321 1.0405 123 93 104
17.762 8.7366 -0.7715 148 96 95
10.164 8.0179 1.0812 125 94 104
11.833 8.8652 -1.3486 130 96 92
18.03 8.6714 -0.79253 148 95 95
14.216 8.8406 -0.046699 137 96 98
16.741 8.9704 -0.038579 145 96 99
5.1158 8.0585 1.7838 110 94 108
16.294 8.962 0.50233 143 96 101
11.365 10.107 0.49686 129 99 101
12.654 9.7129 1.4415 132 98 106
13.492 7.2805 1.7736 135 92 108
14.489 8.9704 0.64178 138 96 102
10.303 9.5928 1.2524 126 98 105
8.3651 5.1122 -0.51872 120 86 96
9.8965 5.5833 0.85659 124 87 103
9.6469 5.4315 1.0533 124 86 104
5.4834 6.6801 1.5312 111 90 107
10.547 7.8305 -3.3678 126 93 81
7.1527 8.0099 1.5943 116 94 107
10.906 5.1215 1.1254 127 86 105
15.397 7.223 1.4689 141 91 106
11.381 10.251 0.51409 129 100 101
16.899 8.9153 -0.21044 145 96 98
11.594 7.8891 1.9766 129 93 109
12.277 7.5374 1.6206 131 92 107
13.513 9.7938 -0.50712 135 98 96
15.541 10.767 1.4994 141 101 107
16.252 8.9051 0.52816 143 96 102
11.815 10.37 1.4242 130 100 106
9.9432 7.5729 1.0942 125 92 104
11.73 10.157 0.80946 130 99 103
14.622 9.2103 0.58351 138 97 102
12.296 8.8203 -1.1506 131 96 93
15.178 9.023 0.59661 140 96 102
11.424 5.5152 0.45114 129 87 101
8.8465 5.0823 -1.2049 121 86 92
8.7741 5.0732 0.10391 121 86 99
13.812 9.6791 -0.66654 136 98 95
12.203 8.8556 1.1805 131 96 105
8.9342 5.2201 0.64323 122 86 102
9.2385 5.1409 0.57552 122 86 102
11.449 8.8392 1.1702 129 96 105
10.418 6.3997 1.1706 126 89 105
12.361 10.21 0.029968 132 100 99
13.969 8.9287 0.45852 136 96 101
10.412 5.2692 1.1977 126 86 105
12.384 10.063 0.46324 132 99 101
7.5064 4.8629 0.084273 117 85 99
12.896 9.6683 0.036211 133 98 99
11.984 10.065 0.46637 131 99 101
8.9175 6.576 1.1235 121 90 105
10.124 9.4687 1.0321 125 98 104
12.12 10.423 -0.023076 131 100 99
9.6479 5.2281 0.40917 124 86 101
12.314 10.351 0.49456 131 100 101
12.433 10.215 0.37944 132 100 101
9.4313 5.4677 1.2112 123 87 105
12.939 10.177 0.63933 133 99 102
12.379 10.219 0.24593 132 100 100
13.037 10.182 0.85872 134 99 103
12.948 8.7443 1.1695 133 96 105
13.276 9.9956 -0.34061 134 99 97
13.361 8.7712 1.1939 135 96 105
13.928 8.8227 0.40423 136 96 101
14.77 8.8423 0.31576 139 96 100
14.638 9.1083 0.51794 138 97 101
8.5664 7.8738 -1.1695 120 93 93
9.7566 5.1071 0.40096 124 86 101
12.503 10.147 0.49651 132 99 101
13.699 9.7163 -0.66484 136 98 95
14.569 8.8554 0.3663 138 96 101
13.058 10.176 0.85604 134 99 103
9.6239 9.0586 0.14637 124 96 99
9.9103 5.1685 0.21473 124 86 100
11.778 10.684 0.16868 130 101 100
12.764 10.259 -0.063237 133 100 98
10.915 7.8908 1.2513 127 93 105
13.538 11.793 0.73655 135 104 103
13.991 12.068 0.051749 136 105 99
13.687 12.26 -0.10846 136 105 98
13.467 12.388 0.056414 135 106 99
13.453 12.471 0.0050259 135 106 99
12.838 18.113 -0.72922 133 121 95
9.728 25.083 -0.12643 124 140 98
11.374 22.049 -0.3475 129 132 97
12.018 14.546 -0.31708 131 111 97
10.207 25.421 0.13696 125 141 99
11.362 22.969 0.23965 129 135 100
12.847 16.893 -1.3529 133 118 92
11.435 22.52 -0.13576 129 133 98
11.671 19.258 -0.72676 130 124 95
14.22 13.377 -1.383 137 108 91
11.831 19.916 -0.28349 130 126 97
14.261 12.728 0.18468 137 106 100
12.129 15.627 -0.81755 131 114 94
12.581 18.964 -0.95936 132 124 94
13.876 15.973 -1.3582 136 115 92
13.469 15.241 -0.71341 135 113 95
14.158 25.606 0.64872 137 142 102
12.745 19.838 -0.45446 133 126 96
9.6353 24.682 -1.9258 124 139 89
14.223 24.473 0.84244 137 139 103
15.443 23.171 0.49306 141 135 101
13.992 14.713 -1.4259 136 112 91
13.658 15.935 -0.93802 135 115 94
14.213 11.007 0.6454 137 102 102
13.14 21.145 1.0471 134 130 104
15.487 12.612 0.21885 141 106 100
11.882 24.924 0.80337 130 140 103
12.53 21.342 -0.66856 132 130 95
12.853 14.02 -1.2759 133 110 92
16.552 19.865 -0.5052 144 126 96
14.894 14.501 0.22043 139 111 100
16.492 20.548 -0.040139 144 128 99
14.567 11.997 -0.74987 138 104 95
12.589 13.899 -1.2877 132 110 92
12.647 13.583 -1.3111 132 109 92
12.174 13.861 0.38549 131 110 101
14.482 12.117 0.17878 138 105 100
13.523 19.288 0.72937 135 124 103
17.323 18.366 1.1903 146 122 105
16.99 19.175 0.95003 145 124 104
18.751 15.631 -0.29861 150 114 97
17.09 19.775 -0.29699 146 126 97
16.753 19.928 -0.24697 145 126 97
13.264 16.07 -0.81127 134 116 94
13.611 16.083 -1.0583 135 116 93
13.387 15.375 -0.73165 135 114 95
11.962 20.128 0.38934 130 127 101
11.92 19.587 0.05964 130 125 99
16.668 19.059 0.94113 144 124 104
17.167 19.288 -0.56529 146 124 96
16.506 19.523 -1.0725 144 125 93
18.235 21.933 0.34788 149 132 101
16.719 19.878 -0.43987 144 126 96
16.733 20.49 0.49718 144 128 101
17.711 22.407 -1.0442 147 133 93
16.885 19.537 -0.56857 145 125 96
13.813 20.231 0.94913 136 127 104
17.094 20.289 -0.4935 146 127 96
13.032 20.222 0.14765 134 127 100
17.046 19.614 -0.57281 145 125 96
16.535 19.251 -0.72242 144 124 95
12.778 19.559 0.91568 133 125 104
12.907 19.23 0.99397 133 124 104
12.979 19.318 -0.3882 133 125 97
17.142 19.951 1.0648 146 126 104
16.487 19.603 -0.87082 144 125 94
11.774 19.851 -0.092595 130 126 98
16.408 19.523 -0.409 144 125 97
16.736 20.095 -0.34208 144 127 97
16.066 22.748 0.55136 143 134 102
17.029 19.441 -1.0485 145 125 93
10.628 18.637 -0.39437 127 123 97
12.11 19.121 -0.44998 131 124 96
14.097 20.588 1.1053 137 128 105
10.328 17.857 -0.45794 126 121 96
13.66 19.545 1.2307 135 125 105
17.383 18.679 1.0564 146 123 104
16.747 19.45 -1.0524 145 125 93
17.817 20.064 0.43664 148 127 101
14.223 36.028 -1.1174 137 170 93
16.742 20.219 -0.23067 145 127 98
14.252 20.49 1.0655 137 128 104
17.038 19.501 -0.83818 145 125 94
16.452 20.882 1.2398 144 129 105
16.867 19.459 -1.0508 145 125 93
16.69 20.133 -0.27962 144 127 97
16.693 19.565 -0.49111 144 125 96
16.616 19.927 -0.46585 144 126 96
14.711 22.616 0.16188 139 134 100
15.948 26.59 -0.21116 142 144 98
16.194 22.773 0.4465 143 134 101
16.645 20.017 -0.33714 144 126 97
16.75 19.465 -0.90849 145 125 94
16.861 20.081 -0.49032 145 127 96
15.959 26.178 -0.0014467 142 143 99
16.858 20 -0.40564 145 126 97
16.005 24.204 0.55307 142 138 102
14.456 24.857 0.047705 138 140 99
14.147 32.326 1.1475 137 160 105
16.316 31.969 0.80509 143 159 103
16.11 44.227 -0.93007 143 193 94
14.351 24.966 -1.4418 137 140 91
13.639 37.562 -0.21934 135 174 98
16.082 26.625 -1.4039 143 145 91
16.127 27.323 -1.066 143 146 93
16.003 26.712 -0.84786 142 145 94
16.06 26.695 -0.83218 143 145 94
16.299 26.739 -0.68659 143 145 95
16.256 30.381 -0.65831 143 155 95
16.371 28.076 -0.012003 143 149 99
16.402 28.316 -0.00931 144 149 99
11.024 28.301 0.35978 128 149 101
16.411 26.657 -0.77809 144 145 95
24.891 26.707 -0.33081 168 145 97
24.281 26.584 -0.16197 167 144 98
23.89 27.141 -0.44318 166 146 96
23.268 26.984 -0.62419 164 146 95
19.227 28.805 -0.15287 152 151 98
24.455 26.633 -1.0891 167 145 93
19.136 28.273 0.19158 152 149 100
19.222 28.684 -0.3598 152 150 97
17.5 35.377 0.33109 147 169 100
17.696 30.878 -0.82399 147 156 94
16.475 37.897 1.0051 144 175 104
16.153 40.327 1.0438 143 182 104
17.509 39.007 0.43737 147 178 101
16.559 35.982 0.40487 144 170 101
16.33 40.171 0.66547 143 182 102
17.62 33.452 -0.47335 147 163 96
17.557 35.568 0.36518 147 169 101
16.504 39.586 -1.2628 144 180 92
17.568 34.915 -0.77677 147 167 95
16.535 37.836 0.95371 144 175 104
17.58 39.032 0.49033 147 179 101
17.785 45.823 0.84304 148 197 103
17.907 5.239 -1.1816 148 86 93
16.446 45.636 -1.159 144 197 93
16.914 45.355 -0.5856 145 196 96
16.267 44.58 -0.62074 143 194 95
17.052 44.193 -0.35426 145 193 97
17.731 37.073 0.59825 147 173 102
16.78 45.197 -1.1035 145 195 93
16.659 37.388 0.346 144 174 101
17.821 46.113 0.16837 148 198 100
16.384 39.184 -1.2577 143 179 92
16.729 45.449 -1.0179 144 196 93
16.494 44.61 -0.78185 144 194 95
17.502 38.172 -0.014577 147 176 99
16.156 38.814 0.59062 143 178 102
16.39 40.647 -0.18844 143 183 98
16.288 45.234 -0.40834 143 196 97
17.915 45.558 0.45904 148 196 101
16.659 44.617 -0.76342 144 194 95
16.824 43.932 -0.37384 145 192 97
18.329 44.909 0.62369 149 195 102
18.046 46.903 0.69783 148 200 102
15.494 45.608 -0.66403 141 197 95
18.047 47.202 0.11179 148 201 99
17.758 48.003 0.74179 147 203 103
18.3 44.713 -1.0157 149 194 93
18.227 44.311 -0.75492 149 193 95
17.001 45.374 -0.36474 145 196 97
16.703 43.921 0.67635 144 192 102
15.807 43.371 -0.5366 142 190 96
18.114 46.392 0.23343 149 199 100
16.819 44.352 -0.64731 145 193 95
16.228 43.072 0.95158 143 190 104
18.037 47.092 -0.11668 148 201 98
18.984 46.62 -1.2633 151 199 92
18.008 45.312 0.0143 148 196 99
17.827 46.218 -0.1309 148 198 98
19.045 47.012 -1.1871 151 200 92
16.645 45.225 -1.1226 144 195 93
17.246 41.981 -0.25036 146 187 97
16.422 44.67 -0.68388 144 194 95
19.665 47.554 0.98852 153 202 104
19.65 47.555 0.72082 153 202 103
15.749 43.44 0.99157 142 191 104
19.668 47.639 1.3921 153 202 106
